# 3D point list with one line of data per point:
#   POINT3D_ID, X, Y, Z, R, G, B, ERROR, TRACK[] as (IMAGE_ID, POINT2D_IDX)
# Number of points: 315, mean track length: 2
1 4.2990450942627243 4.5227206570954319 30.269172776515319 218 198 152 0.67359764819710233 31 4 30 1
2 4.2990450942627243 4.5227206570954319 30.269172776515319 218 198 152 0.67359764819710233 31 0 30 4
3 -1.3543208911217655 5.5617255507989034 31.361413614656836 56 23 22 1.0405982392589315 31 5 30 5
4 1.1064237159665988 5.6572873194316164 31.694163390998529 162 55 25 1.0702151760801195 31 9 30 7
5 0.68442504310595575 7.4359753484621107 27.687273177553426 32 33 33 2.1545260018835712 31 10 30 8
6 1.9430776075219267 5.022128055698067 31.132574681216159 66 44 28 1.1321457253167173 31 7 30 9
7 -2.1592330866646541 6.9871134999622928 30.432372001347208 182 117 72 1.3536012604350114 31 20 30 12
8 -0.82274301148325313 7.4830449433889683 28.421374091487536 51 29 16 2.0449454041923185 31 30 30 13
9 -2.1592330866646541 6.9871134999622928 30.432372001347208 182 117 72 1.3536012604350114 31 23 30 14
10 3.2483258446595058 4.7997039220693889 30.76917434114036 92 62 40 0.34469393278907956 31 14 30 15
11 3.2483258446595058 4.7997039220693889 30.76917434114036 92 62 40 0.34469393278907956 31 13 30 16
12 1.6029874261540307 4.3721761318263113 32.102925837404754 159 137 106 1.7623650976334311 31 11 30 21
13 1.4723790603630087 6.4367688151163307 27.583716778275825 57 14 11 1.0753011532781389 31 15 30 22
14 -2.6073458570177199 4.9830410952589475 32.408861974378453 219 172 64 1.4124369491752153 31 22 30 24
15 -2.4389814945033872 4.5379096703490802 33.230245688384301 142 89 62 1.4978858148084218 31 8 30 25
16 -2.6073458570177199 4.9830410952589475 32.408861974378453 219 172 64 1.4124369491752153 31 18 30 26
17 2.684442720549038 5.5373713229821488 30.06200711691843 68 71 73 1.2373851346343969 31 21 30 31
18 0.45604971554174656 6.648510644129348 27.853905854937786 227 184 71 0.17225192254166105 31 35 30 32
19 0.081398816262766793 7.1969891276056464 27.694320914181045 110 99 63 0.21379573382469613 31 49 30 34
20 2.684442720549038 5.5373713229821488 30.06200711691843 68 71 73 1.2373851346343969 31 17 30 36
21 1.4640794902469423 3.9191131086540261 32.493834543529495 112 99 83 0.03549317179541249 31 16 30 37
22 0.081398816262766793 7.1969891276056464 27.694320914181045 110 99 63 0.21379573382469613 31 50 30 38
23 0.45604971554174656 6.648510644129348 27.853905854937786 227 184 71 0.17225192254166105 31 47 30 40
24 -0.73331409378262113 6.4404323512999353 29.2965557889626 18 13 8 0.33243829114332313 31 36 30 46
25 -1.2478103524404536 6.7008187894846882 28.98236810596244 25 8 3 0.075032300262333027 31 54 30 47
26 -0.73331409378262113 6.4404323512999353 29.2965557889626 18 13 8 0.33243829114332313 31 41 30 52
27 -1.3897508177817499 5.1998462195178066 31.23310454803558 20 15 16 0.24614998752670769 31 51 30 53
28 -0.91632005816837392 6.6560801328924617 28.627617013271049 114 127 76 1.1115218006371201 31 34 30 54
29 -1.3897508177817499 5.1998462195178066 31.23310454803558 20 15 16 0.24614998752670769 31 52 30 55
30 -1.5858588437318155 4.7541983440339122 32.147585318048087 233 223 175 0.79275907885699604 31 25 30 57
31 -0.06014371840429375 5.0621853341472471 30.461534279285122 85 44 16 0.084243711830475271 31 42 30 59
32 -0.82783138851639737 5.7101667021542193 30.130072686001533 136 112 63 0.38137207492217851 31 39 30 61
33 1.0552263709568297 6.0965065205492932 27.923086294513283 226 160 82 0.27038524940741693 31 38 30 65
34 -1.0624798348277111 7.6111186498861469 28.589920104696606 103 63 23 0.4719567353424089 31 151 30 66
35 1.0614793670510188 6.7174708558648897 27.485496932509886 69 84 79 0.021694369086463071 31 66 30 67
36 -1.9309428306433136 5.4278843953930966 31.095791451871037 28 13 9 0.018547206642371188 31 74 30 68
37 -1.1150576923078137 5.8148072678963505 30.276752455932662 34 14 12 0.18104395295519021 31 76 30 69
38 2.0897047237079507 6.7134255549073538 28.609436506569249 214 178 64 0.85275237963303063 31 103 30 71
39 -1.1023167168222077 5.2039034266641959 31.108716777944149 121 109 74 0.70626586700495952 31 40 30 72
40 -0.96274545059255767 6.006857822732977 30.020597999933177 24 16 7 0.36480952310834242 31 56 30 73
41 1.0614793670510188 6.7174708558648897 27.485496932509886 69 84 79 0.021694369086463071 31 59 30 74
42 0.94430761853483502 4.885987206908144 29.782308992988089 229 205 110 0.22366193777346471 31 71 30 76
43 1.7655290555609391 5.930850557758057 26.748244442243191 200 133 48 1.9398042432461184 31 91 30 77
44 -1.1962816915692005 6.0443136387888572 30.052026212415491 130 139 88 0.34558767667372459 31 57 30 78
45 3.111186654623884 5.7894934935282878 29.748134661448237 23 3 2 0.87250118027741719 31 44 30 79
46 -0.96274545059255767 6.006857822732977 30.020597999933177 24 16 7 0.36480952310834242 31 70 30 80
47 -1.0596987983393902 4.2257664613934702 32.595919686992353 233 204 97 0.14131567116646004 31 80 30 83
48 -0.4334944125695207 4.0926436314283956 32.001095428131876 227 166 92 1.1163682624886042 31 46 30 84
49 -1.2198434386867389 5.5671982975883676 30.592867174291616 26 13 9 0.23979402757645044 31 75 30 87
50 -1.1150576923078137 5.8148072678963505 30.276752455932662 34 14 12 0.18104395295519021 31 63 30 88
51 -0.4334944125695207 4.0926436314283956 32.001095428131876 227 166 92 1.1163682624886042 31 48 30 89
52 -0.085054025017561763 4.5105926899848257 31.191006532024133 230 220 131 0.23907680206845672 31 77 30 90
53 -1.2198434386867389 5.5671982975883676 30.592867174291616 26 13 9 0.23979402757645044 31 62 30 91
54 0.10375612867235544 4.8704882264104663 30.72345073818887 238 232 178 0.2550034212722308 31 98 30 93
55 -2.0551091562372714 5.134573506814565 31.429522891368794 31 10 6 0.040191698528676163 31 94 30 94
56 -1.720086047034036 4.9745191458415867 32.119983739230847 74 50 24 2.4144770677682463 31 72 30 96
57 -0.37833693517789013 6.9449258172156876 28.465836420222121 27 23 16 0.39734794830414688 31 83 30 98
58 -1.0975470650048766 6.1272970409736036 29.732797772495264 121 135 83 0.15607541237770717 31 84 30 100
59 1.1547512116934897 5.534906201004592 29.053605609813793 145 37 11 0.11839922113168848 31 131 30 101
60 0.76290276123265932 5.4078948242631437 29.310469327328573 133 78 56 0.069641356650664482 31 93 30 102
61 -1.720086047034036 4.9745191458415867 32.119983739230847 74 50 24 2.4144770677682463 31 78 30 105
62 0.3244291917690737 4.3066062480189808 31.139270153418149 42 8 4 0.24126378688932648 31 85 30 109
63 -1.3605343718898499 6.5002154146172835 29.39678743178159 28 7 3 0.06563347158320823 31 90 30 112
64 0.36270149446887151 4.6165274113191801 30.663381790582484 229 224 166 0.12056270072618577 31 118 30 114
65 2.3993780498042421 4.6083490335540374 31.177685965104345 119 69 39 0.57818442236004675 31 87 30 115
66 5.2552681851320697 5.0906348637748566 29.192805611476839 120 114 101 0.41742863584528034 31 116 30 119
67 1.4334941883633652 5.4137685033245777 30.468563950983604 162 83 22 1.3218719300863602 31 126 30 122
68 -1.455642954455534 5.5147706376805665 30.750654098309589 117 119 48 0.30267890061399505 31 133 30 123
69 -1.6140844635652187 5.5464465466171529 30.777982223810522 73 41 38 0.011695086284160156 31 135 30 124
70 -1.3110781023478049 5.7148630747390694 30.45058986311917 122 135 87 0.19578997633763795 31 137 30 126
71 2.0031016320192019 6.0046032925575314 27.328538980348956 123 80 24 0.056548369880660851 31 159 30 130
72 2.1689261901291248 6.2927057606291825 27.052952128462234 113 75 27 0.60507202660265813 31 142 30 133
73 -0.97084857894921539 6.3249943368770767 29.435488677538842 130 121 39 0.079242287827137145 31 143 30 136
74 -1.309081751913417 6.3766770015384333 29.570041325850578 116 130 82 0.025898604057292308 31 144 30 137
75 -1.0368652693137304 7.0042250890181048 28.497070784262185 214 196 63 0.14139534336125748 31 205 30 140
76 -1.0918474742362041 7.0976359137966814 28.416753404170755 29 9 5 0.11752523812590954 31 150 30 141
77 5.2552681851320697 5.0906348637748566 29.192805611476839 120 114 101 0.41742863584528034 31 111 30 143
78 0.33196888063150631 4.6125082276286102 31.523006714147936 229 224 166 0.026001245467996155 31 219 30 145
79 -1.0368652693137304 7.0042250890181048 28.497070784262185 214 196 63 0.14139534336125748 31 202 30 149
80 0.71911019274319377 4.9035182041329559 30.14942314159391 150 43 12 0.27632819350724025 31 122 30 150
81 -1.6678724922266042 7.3574586912680919 29.884300761818984 191 119 45 0.14653590705825859 31 149 30 156
82 -0.058991018345334857 3.968705097429539 31.765163968803758 71 41 41 1.1432609029698511 31 89 30 159
83 -0.54406334013210078 7.0463354219697791 28.015358510254327 115 75 74 0.011659080260091373 31 265 30 160
84 -1.1412015045840092 6.346399256623358 29.481973560571408 77 36 32 0.064745833218379345 31 209 30 164
85 -0.036702050121007114 4.7251021421400203 30.913102148270493 220 201 55 0.020700439989599848 31 170 30 167
86 -1.6482526073745065 5.7768238757645261 30.508363677658398 108 110 41 0.079661944518494621 31 212 30 168
87 -1.7768212635590739 5.5518668747282005 30.998154504950591 101 117 77 0.73331947524500174 31 154 30 171
88 0.18260974322260998 4.640798567450755 30.757221329604658 98 48 40 0.06906440087573909 31 119 30 177
89 2.5567332276251507 4.4905501507527124 31.290494537048389 214 175 92 0.32659349255808701 31 100 30 180
90 -1.22951071120574 6.5713721152655138 29.231895223582878 105 108 38 0.083847140776234688 31 200 30 187
91 0.58305251990614648 4.678197706767925 30.526693297205952 48 10 4 0.087361967818030128 31 120 30 189
92 2.5567332276251507 4.4905501507527124 31.290494537048389 214 175 92 0.32659349255808701 31 88 30 194
93 -0.8489052469557582 4.4293871917136407 32.213410850872478 228 194 84 0.56961306009311297 31 167 30 197
94 0.029759580862734523 4.0705227517170943 31.552076178454346 209 195 91 0.034054104796841587 31 183 30 199
95 0.80573379083592767 6.5502031448176341 28.448478195853806 92 92 84 0.86868083836733012 31 401 30 200
96 0.17475058865543375 5.0620068197476682 30.978586111018661 213 198 85 0.40935487707404916 31 124 30 204
97 -1.6341974527571703 5.0366962024998543 31.419099259325829 71 32 21 0.11681583481235042 31 114 30 205
98 -1.8000255966906724 5.3573613741570059 31.03284711666857 114 112 34 0.058284662568139217 31 192 30 208
99 -1.5665207781703732 5.3452172480446993 31.020653302956593 119 133 86 0.15862949978245316 31 130 30 209
100 0.098614494788198462 5.4004186610833091 29.906360714511841 96 71 46 0.052222751387936125 31 189 30 210
101 -1.7768212635590739 5.5518668747282005 30.998154504950591 101 117 77 0.73331947524500174 31 214 30 214
102 0.51634579374240075 5.4653188597671676 29.445866360483439 229 217 117 0.054138283191455278 31 132 30 215
103 -1.7851602182098429 5.7131685340489131 30.734226837543293 30 11 5 0.18211769402967043 31 171 30 221
104 -1.6482526073745065 5.7768238757645261 30.508363677658398 108 110 41 0.079661944518494621 31 155 30 222
105 -1.2922644877830083 5.8304675999190234 30.318162778972439 94 31 19 0.14471241587391478 31 186 30 223
106 1.4085157248893774 5.799261495068758 28.329169367162969 20 9 3 0.089475174554388803 31 161 30 224
107 -0.54678631148725831 5.8419051359394185 29.980999139960563 148 59 12 0.38157812508835454 31 173 30 225
108 -0.54406334013210078 7.0463354219697791 28.015358510254327 115 75 74 0.011659080260091373 31 280 30 229
109 -1.2006446034701854 7.1684101836362677 28.41160569218415 194 164 66 0.158709821312366 31 162 30 230
110 -0.7730942547579156 7.0592627289215946 28.138885916520966 207 153 109 0.13329492036408225 31 148 30 232
111 1.1576890863865683 5.9739357448208343 28.019353096656292 103 115 71 0.35793019023596628 31 194 30 233
112 -1.1412015045840092 6.346399256623358 29.481973560571408 77 36 32 0.064745833218379345 31 197 30 238
113 0.46989803551158055 4.2290335892819479 31.145341879198437 222 202 105 0.039200076756815409 31 242 30 243
114 -0.60047229187482731 4.4223628740699787 31.856862305410598 120 71 41 0.23743247785743821 31 248 30 245
115 0.32662404218600782 4.7650402516337786 30.519377569364032 106 55 32 0.29323569840985275 31 231 30 247
116 -1.1214781854337503 4.8306931365256114 31.565234239830957 166 83 21 0.62329813195570294 31 172 30 248
117 -1.7944108318821159 4.982943430312889 31.491307122626203 197 191 119 0.057050437310609617 31 216 30 251
118 -0.16347758570071591 4.9984989926435119 30.67796290508646 134 74 31 0.15191342044868025 31 177 30 254
119 -0.26666107250920146 5.07463232500562 30.536615364578882 162 74 30 0.048822456987654653 31 185 30 256
120 1.0172244383139062 5.2785067921744186 29.388100308902832 84 21 6 0.024059049032818566 31 271 30 258
121 0.36206935850254385 5.2954264888093734 29.827691074581782 234 230 186 0.082575643367129969 31 184 30 259
122 3.399926889291454 5.5640632075208174 29.749306066863809 75 76 76 0.47821979965157957 31 253 30 260
123 3.7503463530509173 5.6502155910860763 29.344845118085036 44 15 22 1.2797456335102497 31 97 30 262
124 3.2455620101078466 5.6369538604428024 29.795888986022703 52 25 31 0.71153479774197759 31 175 30 265
125 2.9820184421876368 5.7312250843738992 29.805065789586653 27 2 1 0.22552475896930557 31 181 30 267
126 0.97598110446507769 5.6222022112962406 28.855639231872487 215 201 86 0.12275469127806415 31 229 30 268
127 1.6442496215134625 5.7209194538064443 28.106903998199847 129 54 17 0.0054640058140758251 31 306 30 269
128 1.5633255159319301 5.8011170349392227 28.072499201763023 228 206 97 0.068738334699583611 31 301 30 271
129 -1.9275874349056374 5.8881059746702862 30.331182719659569 213 176 68 0.55729098250243303 31 295 30 272
130 -2.2843015499753627 5.9189107407183634 30.765405506306365 237 208 86 0.48602056638680952 31 389 30 273
131 0.33722539344942831 5.9427722492177084 28.807272908830726 155 92 63 0.042351958167858895 31 297 30 276
132 1.5904491064632493 6.0172717758746161 27.897652590664187 69 22 9 0.13691591175569037 31 298 30 278
133 2.78303148282333 6.0522113876989874 29.469224793180079 10 5 8 0.31294077801675013 31 187 30 280
134 -1.7020085053556717 5.8880320071647052 30.430686030972275 20 9 6 0.13403712982867411 31 296 30 281
135 -1.7944108318821159 4.982943430312889 31.491307122626203 197 191 119 0.057050437310609617 31 182 30 282
136 -1.4560700175845716 6.8120851254279957 28.878333752585338 219 187 81 0.22960856602042706 31 281 30 290
137 0.0042068257828302208 5.2568361635586616 30.040934960181424 126 92 57 0.86488066521077234 31 278 30 293
138 0.47050056388854239 6.3653579129699658 28.130851441970833 227 208 89 0.42307471724788426 31 196 30 296
139 0.7242287776175349 6.1783540512330815 28.19585185858714 34 15 9 0.057769788873079583 31 291 30 299
140 -1.8047717734088045 6.0766158762992868 30.013339687437675 214 190 96 0.43653101869617084 31 289 30 302
141 -1.1034829778912916 6.5361546851084542 29.138680472676157 95 54 36 0.16407435875964665 31 285 30 303
142 -1.1034829778912916 6.5361546851084542 29.138680472676157 95 54 36 0.16407435875964665 31 241 30 304
143 0.7242287776175349 6.1783540512330815 28.19585185858714 34 15 9 0.057769788873079583 31 267 30 307
144 2.9820184421876368 5.7312250843738992 29.805065789586653 27 2 1 0.22552475896930557 31 224 30 309
145 -2.349344977631532 5.0201560818656166 31.785284006139523 215 181 77 0.21535526100942215 31 363 30 317
146 0.17704754374157117 3.9374091166627099 31.984178165624471 232 217 141 0.52263384622305531 31 190 30 324
147 5.390333732596627 4.4006885074110951 30.402170420233983 0 0 0 0.52348970012668106 31 234 30 333
148 0.16493365795591913 4.4663599580548388 31.003593157430913 84 37 23 0.10574820262480182 31 250 30 339
149 -0.68711241140760337 4.5873786642768968 31.418757770883392 227 203 106 0.14564773870349607 31 348 30 342
150 -1.221154998087965 4.8980818133295996 31.541215703421422 132 78 38 0.47094707218270698 31 256 30 353
151 2.1466095679386425 4.8471042480255466 30.956681048528829 84 35 10 0.73876211716080276 31 249 30 354
152 -1.9094301477455078 5.0224892040742937 31.555392422048243 85 48 42 0.067770949085618787 31 273 30 358
153 -1.2356241755873285 5.0427591480452003 31.327312661396501 105 103 73 0.35702206164645339 31 275 30 361
154 0.32210472918361149 5.1247663746597585 30.084889125790045 162 72 33 0.13409055438415995 31 452 30 363
155 0.65824718269155869 5.1740352692896447 29.732492483530926 114 66 51 0.3316764809112745 31 264 30 365
156 0.50760237498383032 5.23672003897771 29.739767118170924 114 88 44 0.0078861773003339863 31 232 30 368
157 -0.14654435173994876 5.2712524597872763 30.180344724333199 164 92 53 0.033704990372515495 31 369 30 369
158 0.81626460650413935 5.2478597227199062 29.534923038078421 208 190 72 0.017652877806617444 31 366 30 370
159 -0.90187230630330661 5.4723247872506393 30.597677865566766 129 71 29 0.11028201599893767 31 376 30 374
160 1.1632960313384011 5.4671062622342799 29.105930400570205 60 14 5 0.088871804199699866 31 597 30 377
161 1.2962252612463987 5.6501181769100697 28.596244653796958 77 22 9 0.026310653797523929 31 230 30 385
162 2.8859821500164542 5.7984961974460258 29.726055371637003 60 60 62 0.031236359443394215 31 362 30 386
163 5.1855799844433559 6.097633808020813 27.895606325832851 96 95 90 0.10521582691049902 31 451 30 389
164 2.0049740666746811 5.8107635479882118 27.810388811951093 81 41 14 0.13090157458977253 31 303 30 390
165 2.9283172085300775 5.9716072475253243 29.520837389755687 59 56 57 0.06975616421156805 31 368 30 391
166 -1.4666930837547876 5.9319277878656651 30.218759701984919 64 37 40 0.11963129137708428 31 388 30 394
167 1.8558028185771411 5.9921078633567424 27.572677380078201 188 140 44 0.20111485430913406 31 386 30 397
168 0.28905281542027572 6.0265578141166118 28.796530387090129 225 199 95 0.24592086289334758 31 530 30 398
169 -1.7493563881401515 6.195216690450513 29.810051896218379 216 199 115 0.57677134106986117 31 402 30 404
170 0.53540216411948693 6.1541104470002557 28.44363411466701 142 110 70 0.38335922529261379 31 756 30 405
171 -1.8685284966660147 6.206594173221804 29.895197874445405 232 213 123 0.27362724540330352 31 535 30 406
172 1.1375659128185789 6.2348025362093447 27.678213789751162 147 59 41 0.29238365897363927 31 394 30 407
173 0.87163619701727491 6.2697217076335603 27.995088864136214 226 133 63 0.028260518266797714 31 529 30 408
174 -1.6286566803334548 6.4030150724030515 29.469815283205218 207 196 124 0.44864233260227659 31 310 30 410
175 1.0781414829364886 6.3974706383407121 27.748015218558386 185 80 50 0.0398149932560651 31 533 30 411
176 2.0028578305983205 6.4550870457228129 26.783038209442736 206 188 92 0.033856266371282299 31 532 30 413
177 -1.2660526689383056 6.4899459480346913 29.36394405045877 58 15 6 0.086318515716262562 31 407 30 414
178 -1.5947506502272288 6.5597341767059394 29.279410874925833 147 95 48 0.432682131841574 31 411 30 415
179 -1.7386478421168543 6.6032240716676265 29.345466899987557 239 215 112 0.091525402491933139 31 425 30 417
180 -1.4114061474755937 6.8809179620221563 28.748602735489655 161 102 34 0.32786585445015443 31 417 30 425
181 -0.047027634275843846 4.30005359701111 31.299143232551408 101 105 36 0.033238281217420659 31 247 30 438
182 -1.9094301477455078 5.0224892040742937 31.555392422048243 85 48 42 0.067770949085618787 31 262 30 445
183 -1.2356241755873285 5.0427591480452003 31.327312661396501 105 103 73 0.35702206164645339 31 274 30 447
184 1.9151295593215312 5.1897409147909057 30.794616553722808 35 25 10 1.1471418224432643 31 350 30 448
185 0.50760237498383032 5.23672003897771 29.739767118170924 114 88 44 0.0078861773003339863 31 272 30 449
186 -1.4666930837547876 5.9319277878656651 30.218759701984919 64 37 40 0.11963129137708428 31 439 30 453
187 -2.3007376920965124 5.2304279026528002 31.570223666388458 182 83 23 0.25539073210670832 31 726 30 460
188 0.89713055811492148 5.0912865599799257 29.76599094638172 62 19 9 0.07363140307219701 31 361 30 468
189 -0.23534436381889681 4.1423487383241095 31.614832429224744 89 41 31 0.22894271629151877 31 561 30 469
190 0.62120817456556832 5.1250961189303581 29.798964077453871 228 215 115 0.071797078162085651 31 453 30 471
191 -1.83410902089914 5.3598147226208148 31.130648469189293 117 113 39 0.2592007081239972 31 375 30 476
192 -1.4886744620986307 6.6564678467164917 29.08284232971485 157 79 31 0.21472045754240537 31 545 30 477
193 -1.5107378926544999 5.4151974367520852 30.942921520091691 89 31 20 0.78573971977769608 31 821 30 479
194 -2.2011178736334891 5.5439116419221142 31.010393688562711 220 176 56 2.3279765681604068 31 586 30 482
195 0.89266022887081009 5.427695157852555 29.227423388248528 116 44 32 0.15294736747779089 31 475 30 483
196 1.8625231871547647 5.7584780097506147 27.959422301003542 102 44 15 0.28857712508003419 31 496 30 484
197 2.8522324730402264 5.8712137163679854 29.669507202519778 13 8 15 0.16303672300982686 31 455 30 486
198 4.6779565245626111 5.7708005091595735 28.819206804680217 58 23 21 1.2705471795596475 31 254 30 487
199 -2.3175614660562931 4.7539964702589623 32.321830827893798 146 80 31 0.96656067680294111 31 252 30 489
200 -1.3846046724867442 5.619305859216972 30.628406193255547 75 24 15 0.15503393933021598 31 494 30 496
201 0.76394584741334481 5.5687844475067765 29.035985812710109 232 224 162 0.14395406814699735 31 380 30 499
202 1.0950265780761279 5.6359946009098287 28.726951930428552 140 109 21 0.60336867926330529 31 487 30 502
203 -2.0743518621010422 5.998681042794149 30.36417761383856 234 210 102 0.13341720213388047 31 523 30 503
204 1.3935709394485989 5.916579319207492 28.087875847994987 137 54 33 0.37371094110684627 31 385 30 504
205 1.5704483069198534 5.652228363809308 28.275748983472255 168 70 22 0.15638923266994148 31 488 30 507
206 -1.4085231699692831 5.7262092177150681 30.439723499020879 69 36 22 0.016339425280117111 31 503 30 510
207 -0.019936012086506028 4.0298013539046487 31.663604022966439 210 195 82 0.18784404316149705 31 552 30 518
208 -0.16069533554459225 4.1556947189705493 31.533131432344128 242 234 219 0.08529064425527394 31 335 30 522
209 -0.022249678261206506 4.1594573512824597 31.437398854968837 233 220 91 0.32302532570592346 31 470 30 523
210 -1.5124057574154079 6.033041631516082 30.170632133297005 63 29 20 0.023897678485174781 31 910 30 525
211 0.76873789387795421 4.4612343790432458 30.513920794174098 194 129 78 0.11126237565576763 31 345 30 529
212 -0.13925732239821426 4.6319024193081653 31.103079747126536 229 180 131 0.19408112358294455 31 349 30 533
213 -2.3357589209501772 4.8251141753532902 32.126387896196874 207 175 73 0.50405341689582217 31 684 30 535
214 -1.2765961380984789 4.8056821419587061 31.670496810402103 160 76 23 0.12628950496561636 31 609 30 536
215 3.3902356987789219 4.7899486404762852 30.665017985663209 118 76 42 0.32648792181530628 31 563 30 538
216 5.0841491535516994 5.0145150205238833 29.403255208036391 134 121 102 0.043667389952174437 31 565 30 542
217 0.74041938645578265 4.8546105549493017 30.02134538581625 104 20 11 0.27649771942194246 31 611 30 544
218 -1.4069222361197624 5.8822661914726568 30.242275899854199 97 101 32 0.35645353326805052 31 509 30 547
219 1.0677254002094601 4.8964730205092488 29.683802600810441 217 182 79 0.066438240263494389 31 444 30 550
220 0.38350817184959535 4.9601102491848321 30.192254841328165 179 174 100 0.11143487115368139 31 356 30 553
221 0.49019283493398208 5.026022178648188 30.067536701147265 99 46 37 0.11968764572696999 31 359 30 555
222 0.94504187096304737 5.0419096584231458 29.762858118682658 228 211 128 0.014505198468645852 31 695 30 556
223 -1.9183164805465103 5.1526191893355762 31.380448003893815 222 214 146 0.087258099292732844 31 334 30 557
224 0.45881256232304096 4.9172469674652248 30.239031979146191 121 75 46 0.32166727655395494 31 598 30 558
225 0.70663281017193746 5.0459434664369702 29.881773173843992 229 222 156 0.014272083052633808 31 697 30 559
226 -0.58318940415883214 6.2163845627284235 29.544496983254756 123 92 42 0.12827092392859585 31 754 30 564
227 -1.3779317757748848 6.7077321947351045 29.318918147331363 98 67 31 0.1200668367421199 31 412 30 568
228 0.56954228389473216 6.5123369465561911 27.866659838828046 222 196 71 0.35445882180179378 31 539 30 573
229 0.61852548503109273 6.5802005177527523 27.733035239200866 221 192 69 0.20860747901780674 31 474 30 576
230 -0.19687375555559516 6.7228007914816823 28.528015389958075 137 113 53 0.078642920066413532 31 853 30 581
231 -1.9183164805465103 5.1526191893355762 31.380448003893815 222 214 146 0.087258099292732844 31 432 30 589
232 0.38350817184959535 4.9601102491848321 30.192254841328165 179 174 100 0.11143487115368139 31 429 30 593
233 0.89266022887081009 5.427695157852555 29.227423388248528 116 44 32 0.15294736747779089 31 580 30 600
234 -1.3846046724867442 5.619305859216972 30.628406193255547 75 24 15 0.15503393933021598 31 585 30 603
235 0.76394584741334481 5.5687844475067765 29.035985812710109 232 224 162 0.14395406814699735 31 437 30 604
236 -1.4085231699692831 5.7262092177150681 30.439723499020879 69 36 22 0.016339425280117111 31 587 30 605
237 -1.5769268364907771 6.7345887946072791 29.062177246385733 226 206 99 0.17655761188119262 31 592 30 617
238 -0.854683670446718 7.0206182296463 28.239655678117106 96 98 30 0.070888420318084261 31 593 30 620
239 -1.0341287570695805 6.7136112402505788 28.818739318509369 179 177 109 0.37443116911590751 31 413 30 622
240 -1.4447589588700198 6.7148875477431931 28.979755714584392 201 177 72 0.32063726499782635 31 534 30 623
241 -0.29878438523525858 6.7603699013273753 28.642047861362691 111 92 57 0.41946777379335731 31 500 30 624
242 -1.5769268364907771 6.7345887946072791 29.062177246385733 226 206 99 0.17655761188119262 31 495 30 625
243 -1.3122274885335949 6.7499305766263875 28.806001491279194 111 75 32 0.10665825692431946 31 510 30 626
244 -1.5162488086671926 6.8925711327512706 28.870388851221268 201 110 38 0.064708229589891725 31 518 30 630
245 -0.49485252737391972 6.9986972991751459 29.030714238943652 97 41 32 0.13081365145033269 31 564 30 631
246 -0.854683670446718 7.0206182296463 28.239655678117106 96 98 30 0.070888420318084261 31 460 30 633
247 0.45881256232304096 4.9172469674652248 30.239031979146191 121 75 46 0.32166727655395494 31 490 30 634
248 -1.304136917864636 7.0973304942536872 28.524613426379297 167 72 28 0.07096873373328684 31 463 30 636
249 -2.3019515333159344 5.5580501606043979 31.055698685013166 202 107 29 0.13236994414106246 31 572 30 645
250 -2.233276949048379 5.5516320492855655 30.997058428472915 221 189 69 0.19427898368676338 31 497 30 646
251 0.93431894537106808 5.4781170959830661 29.186353424741519 227 217 140 0.67186241834916549 31 582 30 651
252 -1.4813674335582299 5.6873074008278035 30.556415529533151 81 40 33 0.36723930160037976 31 789 30 659
253 -2.0032709330503709 5.7235914291637062 30.587904236721112 213 179 65 0.40083767187127728 31 779 30 661
254 -1.9789202930782177 5.8423401040443785 30.441941244087683 184 81 23 0.33796147761116824 31 514 30 666
255 1.7879876329718656 5.8082082434958213 27.876994686279289 186 139 35 0.14373352179861681 31 616 30 667
256 -2.1794186053274021 5.8922098673844721 30.580988895884708 235 207 88 0.069742629399850209 31 588 30 669
257 2.0558015046718165 5.8491414039372502 27.706407342470538 78 42 14 0.060478863483092407 31 790 30 670
258 1.9161277141937636 5.8672330779271329 27.680851956279934 134 89 22 0.38853540335684522 31 788 30 673
259 0.75295475484409602 5.8663039015674068 28.587142200736714 228 214 100 0.13660282357168141 31 526 30 674
260 -1.4200628676663616 5.9882685073569748 30.12062000830521 131 140 87 0.078450065802729341 31 390 30 679
261 0.23738215023980472 5.9570569786869978 28.925188957791242 224 205 107 0.13431467355004678 31 770 30 680
262 0.66210205422526824 5.9659244611324223 28.549594291645153 232 221 137 0.2071103517429147 31 769 30 681
263 -1.7161589576039475 5.7422003573846476 30.614364964362142 89 92 36 0.079088123928466564 31 786 30 689
264 1.8125446813299362 5.7026720295164051 28.045868994938004 142 92 21 0.42378231296593638 31 489 30 690
265 0.21724948970636174 5.8863955714451217 29.033851500658105 214 193 110 0.13435889169075629 31 775 30 693
266 2.9833146964848143 4.5338094299632079 30.905183630536651 150 88 52 2.0409086788008364 31 574 30 715
267 2.6191214608904261 4.56269311635769 31.089755705943855 148 84 47 0.67107621789786609 31 633 30 717
268 -0.014252708475450036 4.5986762459628752 30.983890475626559 148 69 43 0.012476522448157105 31 577 30 718
269 -1.2456601586149008 7.2152228064527471 28.418731320129535 215 193 87 0.39846441071589978 31 877 30 720
270 0.056855576462202378 4.5971041145040195 30.893961592146528 223 205 88 0.10469537556477418 31 604 30 726
271 -0.85774072257197609 6.7664937187722796 28.549694289984441 97 100 33 0.65922024194614548 31 858 30 741
272 -1.4992734010290909 6.7474128440039021 28.979056654061417 175 80 29 0.48575057435207913 31 459 30 742
273 -1.6885184709065095 6.715052928517375 29.217127131383247 235 212 97 0.32439341358372048 31 838 30 744
274 0.55595517475727396 6.6508179354572148 27.745168477075044 226 188 63 0.17227909882615627 31 849 30 745
275 0.38192810564993229 6.6568772051138261 27.99605856056197 225 169 45 0.10903971858672157 31 848 30 746
276 -1.5090095591788351 6.6088789888700425 29.150753978269414 194 172 76 0.40291559874532346 31 600 30 749
277 -1.4781206897029719 6.5748761609754949 29.177951914576525 131 88 42 0.1567557875912913 31 477 30 750
278 -0.42430724920967861 6.5475834219391595 28.956049719138374 95 64 32 0.82706676103445054 31 689 30 754
279 -1.5171684162040973 6.4899149255083737 29.319026614226146 126 88 50 0.23837877590700537 31 852 30 759
280 -1.7139276839315896 6.4721903421604035 29.467089834824439 229 217 145 0.54770615519480992 31 619 30 760
281 -0.32408732459482231 6.4715629668100236 28.926535220924574 132 78 35 0.19204472845525672 31 669 30 762
282 -0.94009557677238786 6.4442442494943819 29.249062454438288 59 26 19 0.13394775110302343 31 538 30 764
283 -1.7404763514107349 6.4083298905988721 29.541987092460683 228 216 146 0.5422374606545981 31 846 30 765
284 0.50901115234562455 4.8077113971740104 30.326364308792677 145 76 41 0.16613841180412103 31 805 30 799
285 0.76992517563632945 5.1951212641434239 29.662784098759388 211 194 80 0.010539851286342548 31 709 30 806
286 -1.6615488636553226 5.3610326974391036 31.042844041659578 62 34 36 0.082413738187621932 31 581 30 809
287 1.5590105460245856 5.3078830869274753 28.799180970078353 172 130 30 0.060608831218906228 31 721 30 812
288 1.5062057952914365 5.3573846598163426 28.748150000575656 113 40 14 0.38844828067456655 31 458 30 813
289 -1.3938301037870982 5.4513939937187406 30.884876848017107 66 20 19 0.075504583058211949 31 377 30 814
290 -2.3019515333159344 5.5580501606043979 31.055698685013166 202 107 29 0.13236994414106246 31 568 30 818
291 0.93431894537106808 5.4781170959830661 29.186353424741519 227 217 140 0.67186241834916549 31 583 30 820
292 0.93431894537106808 5.4781170959830661 29.186353424741519 227 217 140 0.67186241834916549 31 479 30 821
293 -1.4656521486019822 5.6508513544591823 30.583692177842316 116 129 80 0.22240533916555935 31 571 30 822
294 -1.0344029157258166 6.145446772874906 29.57771752077856 110 119 74 0.84324554559166709 31 907 30 830
295 0.44511036817356003 6.5051227732046426 28.036818934661639 229 193 68 0.55979216770970575 31 680 30 832
296 -2.1430837466179784 7.1708478224586036 34.743010346734629 190 97 29 0.34044871342875666 31 778 30 835
297 -1.2456601586149008 7.2152228064527471 28.418731320129535 215 193 87 0.39846441071589978 31 843 30 841
298 0.4628607113473614 4.7095111256711277 30.5323751627039 133 43 16 0.73105445131385638 31 661 30 844
299 3.4787472897007183 4.7719137292318976 30.642511103981136 94 62 42 0.39675728583413872 31 504 30 847
300 0.50901115234562455 4.8077113971740104 30.326364308792677 145 76 41 0.16613841180412103 31 676 30 853
301 0.34142273543561019 4.8191332796908979 30.449553416657821 208 164 119 0.081746234842175192 31 678 30 855
302 -0.41027004715299953 4.9121016867569507 30.837415310882459 174 92 50 0.24125700945245804 31 687 30 857
303 -2.5287918326534053 5.0770370029440715 31.859959455894309 232 203 90 0.5040611513375125 31 456 30 860
304 -2.0080081316269593 5.0901819369881149 31.562272188484251 123 79 66 0.1580011442117972 31 454 30 864
305 1.2067502207268073 4.986167797412711 29.460851366829832 196 156 47 0.09720668857829548 31 446 30 866
306 1.1304014233703865 4.9997683757667675 29.498320934163285 182 78 24 0.18807665028817436 31 694 30 867
307 -0.36578866879168076 5.0509174624823219 30.608494998062621 221 196 98 0.072677029072973409 31 700 30 868
308 -1.6608439379573234 5.2658800571330477 31.15055888843353 74 45 49 0.12313085475568777 31 445 30 876
309 -1.6615488636553226 5.3610326974391036 31.042844041659578 62 34 36 0.082413738187621932 31 476 30 887
310 1.5590105460245856 5.3078830869274753 28.799180970078353 172 130 30 0.060608831218906228 31 814 30 892
311 -1.1916613455665586 7.2364404384914165 28.354110114002321 172 100 35 0.44309962288696469 31 878 30 895
312 -1.1152610655743538 7.3399576154174495 28.282224628230644 184 161 61 0.48569278278260714 31 880 30 899
313 0.95870254121517706 5.3970106246775362 29.19002567980943 232 225 171 0.078609687596575051 31 735 30 902
314 -2.2616431347590056 5.5246690566015157 31.043908538126299 175 71 19 0.10637221403167557 31 795 30 904
315 0.0071001968511447584 4.8270595339985753 30.753689805949779 231 193 149 0.16993774025772046 31 610 30 918
